ply
format ascii 1.0
element vertex 866
property double x
property double y
property double z
end_header
-10.980000000000000 -0.700000000000000 10.800000000000001
0.000000000000000 0.000000000000000 0.000000000000000
0.000000000000000 0.000000000000000 0.000000000000000
0.000000000000000 0.000000000000000 0.000000000000000
0.000000000000000 0.000000000000000 0.000000000000000
0.000000000000000 0.000000000000000 0.000000000000000
0.000000000000000 0.000000000000000 0.000000000000000
0.000000000000000 0.000000000000000 0.000000000000000
0.000000000000000 0.000000000000000 0.000000000000000
0.000000000000000 0.000000000000000 0.000000000000000
0.000000000000000 0.000000000000000 0.000000000000000
1.960000000000000 -0.370000000000000 0.180000000000000
2.950000000000000 -0.560000000000000 0.360000000000000
2.950000000000000 -0.560000000000000 0.540000000000000
2.950000000000000 -0.560000000000000 0.720000000000000
2.950000000000000 -0.560000000000000 0.900000000000000
2.950000000000000 -0.560000000000000 1.080000000000000
2.950000000000000 -0.560000000000000 1.260000000000000
2.950000000000000 -0.560000000000000 1.440000000000000
1.960000000000000 -0.370000000000000 1.620000000000000
1.960000000000000 -0.370000000000000 1.800000000000000
1.960000000000000 -0.370000000000000 1.980000000000000
2.950000000000000 -0.560000000000000 2.160000000000000
2.950000000000000 -0.560000000000000 2.340000000000000
2.950000000000000 -0.560000000000000 2.520000000000000
4.910000000000000 -0.930000000000000 2.700000000000000
2.950000000000000 -0.560000000000000 2.880000000000000
2.950000000000000 -0.560000000000000 3.060000000000000
1.960000000000000 -0.370000000000000 3.240000000000000
2.950000000000000 -0.560000000000000 3.420000000000000
2.950000000000000 -0.560000000000000 3.600000000000000
2.950000000000000 -0.560000000000000 3.780000000000000
2.950000000000000 -0.560000000000000 3.960000000000000
2.950000000000000 -0.560000000000000 4.140000000000000
2.950000000000000 -0.560000000000000 4.320000000000000
2.950000000000000 -0.560000000000000 4.500000000000000
2.950000000000000 -0.560000000000000 4.680000000000000
2.950000000000000 -0.560000000000000 4.860000000000000
2.950000000000000 -0.560000000000000 5.040000000000000
2.950000000000000 -0.560000000000000 5.220000000000000
3.930000000000000 -0.750000000000000 5.400000000000000
3.930000000000000 -0.750000000000000 5.580000000000000
2.950000000000000 -0.560000000000000 5.760000000000000
4.910000000000000 -0.930000000000000 5.940000000000000
3.930000000000000 -0.750000000000000 6.120000000000000
1.960000000000000 -0.370000000000000 6.300000000000000
0.000000000000000 0.000000000000000 6.480000000000000
0.980000000000000 -0.190000000000000 6.660000000000000
1.960000000000000 -0.370000000000000 6.840000000000000
3.930000000000000 -0.750000000000000 7.020000000000000
4.910000000000000 -0.930000000000000 7.200000000000000
5.890000000000000 -1.120000000000000 7.380000000000000
5.890000000000000 -1.120000000000000 7.560000000000000
5.890000000000000 -1.120000000000000 7.740000000000000
5.890000000000000 -1.120000000000000 7.920000000000000
-0.980000000000000 0.190000000000000 8.100000000000000
-5.890000000000000 1.120000000000000 8.279999999999999
-5.890000000000000 1.120000000000000 8.460000000000001
6.880000000000000 -1.310000000000000 8.640000000000001
4.910000000000000 -0.930000000000000 8.820000000000000
4.910000000000000 -0.930000000000000 9.000000000000000
4.910000000000000 -0.930000000000000 9.180000000000000
4.910000000000000 -0.930000000000000 9.359999999999999
5.890000000000000 -1.120000000000000 9.539999999999999
5.890000000000000 -1.120000000000000 9.720000000000001
5.890000000000000 -1.120000000000000 9.900000000000000
4.910000000000000 -0.930000000000000 10.080000000000000
1.960000000000000 -0.370000000000000 10.260000000000000
-0.980000000000000 0.190000000000000 10.440000000000000
-7.860000000000000 1.490000000000000 10.619999999999999
-10.810000000000000 2.050000000000000 10.800000000000001
0.000000000000000 0.000000000000000 0.000000000000000
0.000000000000000 0.000000000000000 0.000000000000000
0.000000000000000 0.000000000000000 0.000000000000000
0.000000000000000 0.000000000000000 0.000000000000000
0.000000000000000 0.000000000000000 0.000000000000000
0.000000000000000 0.000000000000000 0.000000000000000
0.000000000000000 0.000000000000000 0.000000000000000
0.000000000000000 0.000000000000000 0.000000000000000
0.000000000000000 0.000000000000000 0.000000000000000
0.000000000000000 0.000000000000000 0.000000000000000
1.810000000000000 -0.850000000000000 0.180000000000000
1.810000000000000 -0.850000000000000 0.360000000000000
1.810000000000000 -0.850000000000000 0.540000000000000
1.810000000000000 -0.850000000000000 0.720000000000000
1.810000000000000 -0.850000000000000 0.900000000000000
1.810000000000000 -0.850000000000000 1.080000000000000
1.810000000000000 -0.850000000000000 1.260000000000000
1.810000000000000 -0.850000000000000 1.440000000000000
3.620000000000000 -1.700000000000000 1.620000000000000
1.810000000000000 -0.850000000000000 1.800000000000000
1.810000000000000 -0.850000000000000 1.980000000000000
1.810000000000000 -0.850000000000000 2.160000000000000
1.810000000000000 -0.850000000000000 2.340000000000000
1.810000000000000 -0.850000000000000 2.520000000000000
1.810000000000000 -0.850000000000000 2.700000000000000
1.810000000000000 -0.850000000000000 2.880000000000000
1.810000000000000 -0.850000000000000 3.060000000000000
1.810000000000000 -0.850000000000000 3.240000000000000
2.720000000000000 -1.270000000000000 3.420000000000000
1.810000000000000 -0.850000000000000 3.600000000000000
2.720000000000000 -1.270000000000000 3.780000000000000
2.720000000000000 -1.270000000000000 3.960000000000000
2.720000000000000 -1.270000000000000 4.140000000000000
4.530000000000000 -2.120000000000000 4.320000000000000
2.720000000000000 -1.270000000000000 4.500000000000000
2.720000000000000 -1.270000000000000 4.680000000000000
4.530000000000000 -2.120000000000000 4.860000000000000
2.720000000000000 -1.270000000000000 5.040000000000000
2.720000000000000 -1.270000000000000 5.220000000000000
2.720000000000000 -1.270000000000000 5.400000000000000
4.530000000000000 -2.120000000000000 5.580000000000000
2.720000000000000 -1.270000000000000 5.760000000000000
3.620000000000000 -1.700000000000000 5.940000000000000
1.810000000000000 -0.850000000000000 6.120000000000000
0.000000000000000 0.000000000000000 6.300000000000000
0.910000000000000 -0.420000000000000 6.480000000000000
1.810000000000000 -0.850000000000000 6.660000000000000
3.620000000000000 -1.700000000000000 6.840000000000000
4.530000000000000 -2.120000000000000 7.020000000000000
5.430000000000000 -2.550000000000000 7.200000000000000
6.340000000000000 -2.970000000000000 7.380000000000000
5.430000000000000 -2.550000000000000 7.560000000000000
5.430000000000000 -2.550000000000000 7.740000000000000
3.620000000000000 -1.700000000000000 7.920000000000000
-6.340000000000000 2.970000000000000 8.100000000000000
-4.530000000000000 2.120000000000000 8.279999999999999
0.910000000000000 -0.420000000000000 8.460000000000001
4.530000000000000 -2.120000000000000 8.640000000000001
4.530000000000000 -2.120000000000000 8.820000000000000
6.340000000000000 -2.970000000000000 9.000000000000000
5.430000000000000 -2.550000000000000 9.180000000000000
5.430000000000000 -2.550000000000000 9.359999999999999
5.430000000000000 -2.550000000000000 9.539999999999999
5.430000000000000 -2.550000000000000 9.720000000000001
5.430000000000000 -2.550000000000000 9.900000000000000
4.530000000000000 -2.120000000000000 10.080000000000000
0.910000000000000 -0.420000000000000 10.260000000000000
-1.810000000000000 0.850000000000000 10.440000000000000
-7.240000000000000 3.400000000000000 10.619999999999999
-9.960000000000001 4.670000000000000 10.800000000000001
0.000000000000000 0.000000000000000 0.000000000000000
0.000000000000000 0.000000000000000 0.000000000000000
0.000000000000000 0.000000000000000 0.000000000000000
0.000000000000000 0.000000000000000 0.000000000000000
0.000000000000000 0.000000000000000 0.000000000000000
0.000000000000000 0.000000000000000 0.000000000000000
0.000000000000000 0.000000000000000 0.000000000000000
0.000000000000000 0.000000000000000 0.000000000000000
0.000000000000000 0.000000000000000 0.000000000000000
0.000000000000000 0.000000000000000 0.000000000000000
2.310000000000000 -1.910000000000000 0.180000000000000
2.310000000000000 -1.910000000000000 0.360000000000000
2.310000000000000 -1.910000000000000 0.540000000000000
2.310000000000000 -1.910000000000000 0.720000000000000
2.310000000000000 -1.910000000000000 0.900000000000000
3.860000000000000 -3.180000000000000 1.080000000000000
3.860000000000000 -3.180000000000000 1.260000000000000
3.860000000000000 -3.180000000000000 1.440000000000000
2.310000000000000 -1.910000000000000 1.620000000000000
2.310000000000000 -1.910000000000000 1.800000000000000
2.310000000000000 -1.910000000000000 1.980000000000000
2.310000000000000 -1.910000000000000 2.160000000000000
1.540000000000000 -1.270000000000000 2.340000000000000
3.860000000000000 -3.180000000000000 2.520000000000000
1.540000000000000 -1.270000000000000 2.700000000000000
1.540000000000000 -1.270000000000000 2.880000000000000
1.540000000000000 -1.270000000000000 3.060000000000000
2.310000000000000 -1.910000000000000 3.240000000000000
2.310000000000000 -1.910000000000000 3.420000000000000
2.310000000000000 -1.910000000000000 3.600000000000000
2.310000000000000 -1.910000000000000 3.780000000000000
2.310000000000000 -1.910000000000000 3.960000000000000
2.310000000000000 -1.910000000000000 4.140000000000000
1.540000000000000 -1.270000000000000 4.320000000000000
2.310000000000000 -1.910000000000000 4.500000000000000
2.310000000000000 -1.910000000000000 4.680000000000000
2.310000000000000 -1.910000000000000 4.860000000000000
2.310000000000000 -1.910000000000000 5.040000000000000
2.310000000000000 -1.910000000000000 5.220000000000000
2.310000000000000 -1.910000000000000 5.400000000000000
2.310000000000000 -1.910000000000000 5.580000000000000
2.310000000000000 -1.910000000000000 5.760000000000000
0.770000000000000 -0.640000000000000 5.940000000000000
0.000000000000000 0.000000000000000 6.120000000000000
0.000000000000000 0.000000000000000 6.300000000000000
1.540000000000000 -1.270000000000000 6.480000000000000
3.080000000000000 -2.550000000000000 6.660000000000000
3.860000000000000 -3.180000000000000 6.840000000000000
4.630000000000000 -3.820000000000000 7.020000000000000
4.630000000000000 -3.820000000000000 7.200000000000000
4.630000000000000 -3.820000000000000 7.380000000000000
3.860000000000000 -3.180000000000000 7.560000000000000
3.080000000000000 -2.550000000000000 7.740000000000000
0.000000000000000 0.000000000000000 7.920000000000000
-5.400000000000000 4.460000000000000 8.100000000000000
0.770000000000000 -0.640000000000000 8.279999999999999
4.630000000000000 -3.820000000000000 8.460000000000001
3.860000000000000 -3.180000000000000 8.640000000000001
3.860000000000000 -3.180000000000000 8.820000000000000
5.400000000000000 -4.460000000000000 9.000000000000000
3.860000000000000 -3.180000000000000 9.180000000000000
4.630000000000000 -3.820000000000000 9.359999999999999
4.630000000000000 -3.820000000000000 9.539999999999999
4.630000000000000 -3.820000000000000 9.720000000000001
5.400000000000000 -4.460000000000000 9.900000000000000
3.860000000000000 -3.180000000000000 10.080000000000000
1.540000000000000 -1.270000000000000 10.260000000000000
-1.540000000000000 1.270000000000000 10.440000000000000
-5.400000000000000 4.460000000000000 10.619999999999999
-8.480000000000000 7.000000000000000 10.800000000000001
0.000000000000000 0.000000000000000 0.000000000000000
0.000000000000000 0.000000000000000 0.000000000000000
0.000000000000000 0.000000000000000 0.000000000000000
0.000000000000000 0.000000000000000 0.000000000000000
0.000000000000000 0.000000000000000 0.000000000000000
0.000000000000000 0.000000000000000 0.000000000000000
0.000000000000000 0.000000000000000 0.000000000000000
0.000000000000000 0.000000000000000 0.000000000000000
0.000000000000000 0.000000000000000 0.000000000000000
0.000000000000000 0.000000000000000 0.000000000000000
1.770000000000000 -2.420000000000000 0.180000000000000
1.770000000000000 -2.420000000000000 0.360000000000000
1.770000000000000 -2.420000000000000 0.540000000000000
1.770000000000000 -2.420000000000000 0.720000000000000
1.770000000000000 -2.420000000000000 0.900000000000000
1.180000000000000 -1.620000000000000 1.080000000000000
1.180000000000000 -1.620000000000000 1.260000000000000
1.180000000000000 -1.620000000000000 1.440000000000000
1.770000000000000 -2.420000000000000 1.620000000000000
1.770000000000000 -2.420000000000000 1.800000000000000
1.770000000000000 -2.420000000000000 1.980000000000000
1.770000000000000 -2.420000000000000 2.160000000000000
1.770000000000000 -2.420000000000000 2.340000000000000
1.770000000000000 -2.420000000000000 2.520000000000000
1.770000000000000 -2.420000000000000 2.700000000000000
1.770000000000000 -2.420000000000000 2.880000000000000
2.940000000000000 -4.040000000000000 3.060000000000000
1.770000000000000 -2.420000000000000 3.240000000000000
2.940000000000000 -4.040000000000000 3.420000000000000
1.770000000000000 -2.420000000000000 3.600000000000000
2.940000000000000 -4.040000000000000 3.780000000000000
1.770000000000000 -2.420000000000000 3.960000000000000
1.770000000000000 -2.420000000000000 4.140000000000000
1.770000000000000 -2.420000000000000 4.320000000000000
1.770000000000000 -2.420000000000000 4.500000000000000
1.770000000000000 -2.420000000000000 4.680000000000000
1.770000000000000 -2.420000000000000 4.860000000000000
1.770000000000000 -2.420000000000000 5.040000000000000
1.770000000000000 -2.420000000000000 5.220000000000000
1.770000000000000 -2.420000000000000 5.400000000000000
1.770000000000000 -2.420000000000000 5.580000000000000
1.770000000000000 -2.420000000000000 5.760000000000000
0.000000000000000 0.000000000000000 5.940000000000000
0.000000000000000 0.000000000000000 6.120000000000000
1.180000000000000 -1.620000000000000 6.300000000000000
2.360000000000000 -3.230000000000000 6.480000000000000
2.940000000000000 -4.040000000000000 6.660000000000000
3.530000000000000 -4.850000000000000 6.840000000000000
3.530000000000000 -4.850000000000000 7.020000000000000
3.530000000000000 -4.850000000000000 7.200000000000000
2.360000000000000 -3.230000000000000 7.380000000000000
2.360000000000000 -3.230000000000000 7.560000000000000
1.180000000000000 -1.620000000000000 7.740000000000000
-0.590000000000000 0.810000000000000 7.920000000000000
0.000000000000000 0.000000000000000 8.100000000000000
3.530000000000000 -4.850000000000000 8.279999999999999
4.710000000000000 -6.470000000000000 8.460000000000001
2.940000000000000 -4.040000000000000 8.640000000000001
2.940000000000000 -4.040000000000000 8.820000000000000
4.710000000000000 -6.470000000000000 9.000000000000000
2.940000000000000 -4.040000000000000 9.180000000000000
2.940000000000000 -4.040000000000000 9.359999999999999
3.530000000000000 -4.850000000000000 9.539999999999999
3.530000000000000 -4.850000000000000 9.720000000000001
4.120000000000000 -5.660000000000000 9.900000000000000
2.360000000000000 -3.230000000000000 10.080000000000000
0.590000000000000 -0.810000000000000 10.260000000000000
-1.180000000000000 1.620000000000000 10.440000000000000
-4.710000000000000 6.470000000000000 10.619999999999999
-6.480000000000000 8.890000000000001 10.800000000000001
0.000000000000000 0.000000000000000 0.000000000000000
0.000000000000000 0.000000000000000 0.000000000000000
0.000000000000000 0.000000000000000 0.000000000000000
0.000000000000000 0.000000000000000 0.000000000000000
0.000000000000000 0.000000000000000 0.000000000000000
0.000000000000000 0.000000000000000 0.000000000000000
0.000000000000000 0.000000000000000 0.000000000000000
0.000000000000000 0.000000000000000 0.000000000000000
0.000000000000000 0.000000000000000 0.000000000000000
0.000000000000000 0.000000000000000 0.000000000000000
1.110000000000000 -2.790000000000000 0.180000000000000
1.110000000000000 -2.790000000000000 0.360000000000000
1.110000000000000 -2.790000000000000 0.540000000000000
1.110000000000000 -2.790000000000000 0.720000000000000
1.850000000000000 -4.650000000000000 0.900000000000000
1.110000000000000 -2.790000000000000 1.080000000000000
1.110000000000000 -2.790000000000000 1.260000000000000
1.110000000000000 -2.790000000000000 1.440000000000000
1.110000000000000 -2.790000000000000 1.620000000000000
0.740000000000000 -1.860000000000000 1.800000000000000
0.740000000000000 -1.860000000000000 1.980000000000000
1.110000000000000 -2.790000000000000 2.160000000000000
1.850000000000000 -4.650000000000000 2.340000000000000
1.110000000000000 -2.790000000000000 2.520000000000000
1.110000000000000 -2.790000000000000 2.700000000000000
0.740000000000000 -1.860000000000000 2.880000000000000
0.740000000000000 -1.860000000000000 3.060000000000000
1.110000000000000 -2.790000000000000 3.240000000000000
0.740000000000000 -1.860000000000000 3.420000000000000
1.110000000000000 -2.790000000000000 3.600000000000000
1.110000000000000 -2.790000000000000 3.780000000000000
1.110000000000000 -2.790000000000000 3.960000000000000
1.110000000000000 -2.790000000000000 4.140000000000000
1.110000000000000 -2.790000000000000 4.320000000000000
1.110000000000000 -2.790000000000000 4.500000000000000
1.850000000000000 -4.650000000000000 4.680000000000000
1.110000000000000 -2.790000000000000 4.860000000000000
1.110000000000000 -2.790000000000000 5.040000000000000
1.110000000000000 -2.790000000000000 5.220000000000000
1.110000000000000 -2.790000000000000 5.400000000000000
1.480000000000000 -3.720000000000000 5.580000000000000
1.480000000000000 -3.720000000000000 5.760000000000000
0.000000000000000 0.000000000000000 5.940000000000000
0.740000000000000 -1.860000000000000 6.120000000000000
1.480000000000000 -3.720000000000000 6.300000000000000
2.220000000000000 -5.580000000000000 6.480000000000000
2.220000000000000 -5.580000000000000 6.660000000000000
2.220000000000000 -5.580000000000000 6.840000000000000
2.220000000000000 -5.580000000000000 7.020000000000000
1.850000000000000 -4.650000000000000 7.200000000000000
1.110000000000000 -2.790000000000000 7.380000000000000
0.740000000000000 -1.860000000000000 7.560000000000000
0.740000000000000 -1.860000000000000 7.740000000000000
0.740000000000000 -1.860000000000000 7.920000000000000
2.220000000000000 -5.580000000000000 8.100000000000000
3.320000000000000 -8.359999999999999 8.279999999999999
3.690000000000000 -9.289999999999999 8.460000000000001
1.850000000000000 -4.650000000000000 8.640000000000001
1.850000000000000 -4.650000000000000 8.820000000000000
2.590000000000000 -6.500000000000000 9.000000000000000
1.850000000000000 -4.650000000000000 9.180000000000000
1.850000000000000 -4.650000000000000 9.359999999999999
2.220000000000000 -5.580000000000000 9.539999999999999
2.220000000000000 -5.580000000000000 9.720000000000001
2.220000000000000 -5.580000000000000 9.900000000000000
1.850000000000000 -4.650000000000000 10.080000000000000
0.740000000000000 -1.860000000000000 10.260000000000000
-0.370000000000000 0.930000000000000 10.440000000000000
-2.590000000000000 6.500000000000000 10.619999999999999
-3.690000000000000 9.289999999999999 10.800000000000001
0.000000000000000 0.000000000000000 0.000000000000000
0.000000000000000 0.000000000000000 0.000000000000000
0.000000000000000 0.000000000000000 0.000000000000000
0.000000000000000 0.000000000000000 0.000000000000000
0.000000000000000 0.000000000000000 0.000000000000000
0.000000000000000 0.000000000000000 0.000000000000000
0.000000000000000 0.000000000000000 0.000000000000000
0.000000000000000 0.000000000000000 0.000000000000000
0.000000000000000 0.000000000000000 0.000000000000000
0.000000000000000 0.000000000000000 0.000000000000000
0.380000000000000 -2.980000000000000 0.180000000000000
0.250000000000000 -1.980000000000000 0.360000000000000
0.380000000000000 -2.980000000000000 0.540000000000000
0.250000000000000 -1.980000000000000 0.720000000000000
0.250000000000000 -1.980000000000000 0.900000000000000
0.250000000000000 -1.980000000000000 1.080000000000000
0.250000000000000 -1.980000000000000 1.260000000000000
0.250000000000000 -1.980000000000000 1.440000000000000
0.250000000000000 -1.980000000000000 1.620000000000000
0.250000000000000 -1.980000000000000 1.800000000000000
0.250000000000000 -1.980000000000000 1.980000000000000
0.380000000000000 -2.980000000000000 2.160000000000000
0.510000000000000 -3.970000000000000 2.340000000000000
0.380000000000000 -2.980000000000000 2.520000000000000
0.250000000000000 -1.980000000000000 2.700000000000000
0.250000000000000 -1.980000000000000 2.880000000000000
0.380000000000000 -2.980000000000000 3.060000000000000
0.380000000000000 -2.980000000000000 3.240000000000000
0.380000000000000 -2.980000000000000 3.420000000000000
0.380000000000000 -2.980000000000000 3.600000000000000
0.380000000000000 -2.980000000000000 3.780000000000000
0.380000000000000 -2.980000000000000 3.960000000000000
0.630000000000000 -4.960000000000000 4.140000000000000
0.380000000000000 -2.980000000000000 4.320000000000000
0.380000000000000 -2.980000000000000 4.500000000000000
0.380000000000000 -2.980000000000000 4.680000000000000
0.380000000000000 -2.980000000000000 4.860000000000000
0.380000000000000 -2.980000000000000 5.040000000000000
0.510000000000000 -3.970000000000000 5.220000000000000
0.630000000000000 -4.960000000000000 5.400000000000000
0.510000000000000 -3.970000000000000 5.580000000000000
0.510000000000000 -3.970000000000000 5.760000000000000
0.380000000000000 -2.980000000000000 5.940000000000000
0.630000000000000 -4.960000000000000 6.120000000000000
0.760000000000000 -5.950000000000000 6.300000000000000
0.890000000000000 -6.940000000000000 6.480000000000000
0.890000000000000 -6.940000000000000 6.660000000000000
0.760000000000000 -5.950000000000000 6.840000000000000
0.630000000000000 -4.960000000000000 7.020000000000000
0.510000000000000 -3.970000000000000 7.200000000000000
0.250000000000000 -1.980000000000000 7.380000000000000
0.380000000000000 -2.980000000000000 7.560000000000000
0.380000000000000 -2.980000000000000 7.740000000000000
0.630000000000000 -4.960000000000000 7.920000000000000
1.140000000000000 -8.930000000000000 8.100000000000000
1.270000000000000 -9.920000000000000 8.279999999999999
1.270000000000000 -9.920000000000000 8.460000000000001
0.760000000000000 -5.950000000000000 8.640000000000001
0.890000000000000 -6.940000000000000 8.820000000000000
0.760000000000000 -5.950000000000000 9.000000000000000
0.760000000000000 -5.950000000000000 9.180000000000000
1.010000000000000 -7.940000000000000 9.359999999999999
1.010000000000000 -7.940000000000000 9.539999999999999
1.010000000000000 -7.940000000000000 9.720000000000001
0.760000000000000 -5.950000000000000 9.900000000000000
0.760000000000000 -5.950000000000000 10.080000000000000
0.510000000000000 -3.970000000000000 10.260000000000000
0.000000000000000 0.000000000000000 10.440000000000000
-0.890000000000000 6.940000000000000 10.619999999999999
-1.270000000000000 9.920000000000000 10.800000000000001
0.000000000000000 0.000000000000000 0.000000000000000
0.000000000000000 0.000000000000000 0.000000000000000
0.000000000000000 0.000000000000000 0.000000000000000
0.000000000000000 0.000000000000000 0.000000000000000
0.000000000000000 0.000000000000000 0.000000000000000
0.000000000000000 0.000000000000000 0.000000000000000
0.000000000000000 0.000000000000000 0.000000000000000
0.000000000000000 0.000000000000000 0.000000000000000
0.000000000000000 0.000000000000000 0.000000000000000
0.000000000000000 0.000000000000000 0.000000000000000
-0.370000000000000 -2.980000000000000 0.180000000000000
-0.620000000000000 -4.960000000000000 0.360000000000000
-0.620000000000000 -4.960000000000000 0.540000000000000
-0.370000000000000 -2.980000000000000 0.720000000000000
-0.370000000000000 -2.980000000000000 0.900000000000000
-0.370000000000000 -2.980000000000000 1.080000000000000
-0.370000000000000 -2.980000000000000 1.260000000000000
-0.370000000000000 -2.980000000000000 1.440000000000000
-0.370000000000000 -2.980000000000000 1.620000000000000
-0.370000000000000 -2.980000000000000 1.800000000000000
-0.370000000000000 -2.980000000000000 1.980000000000000
-0.620000000000000 -4.960000000000000 2.160000000000000
-0.370000000000000 -2.980000000000000 2.340000000000000
-0.370000000000000 -2.980000000000000 2.520000000000000
-0.370000000000000 -2.980000000000000 2.700000000000000
-0.370000000000000 -2.980000000000000 2.880000000000000
-0.370000000000000 -2.980000000000000 3.060000000000000
-0.370000000000000 -2.980000000000000 3.240000000000000
-0.370000000000000 -2.980000000000000 3.420000000000000
-0.370000000000000 -2.980000000000000 3.600000000000000
-0.370000000000000 -2.980000000000000 3.780000000000000
-0.370000000000000 -2.980000000000000 3.960000000000000
-0.370000000000000 -2.980000000000000 4.140000000000000
-0.370000000000000 -2.980000000000000 4.320000000000000
-0.370000000000000 -2.980000000000000 4.500000000000000
-0.370000000000000 -2.980000000000000 4.680000000000000
-0.370000000000000 -2.980000000000000 4.860000000000000
-0.370000000000000 -2.980000000000000 5.040000000000000
-0.490000000000000 -3.970000000000000 5.220000000000000
-0.370000000000000 -2.980000000000000 5.400000000000000
-0.370000000000000 -2.980000000000000 5.580000000000000
-0.490000000000000 -3.970000000000000 5.760000000000000
-0.620000000000000 -4.960000000000000 5.940000000000000
-0.740000000000000 -5.950000000000000 6.120000000000000
-0.870000000000000 -6.950000000000000 6.300000000000000
-0.740000000000000 -5.950000000000000 6.480000000000000
-0.740000000000000 -5.950000000000000 6.660000000000000
-0.620000000000000 -4.960000000000000 6.840000000000000
-0.370000000000000 -2.980000000000000 7.020000000000000
-0.250000000000000 -1.980000000000000 7.200000000000000
-0.250000000000000 -1.980000000000000 7.380000000000000
-0.370000000000000 -2.980000000000000 7.560000000000000
-0.620000000000000 -4.960000000000000 7.740000000000000
-0.740000000000000 -5.950000000000000 7.920000000000000
-1.240000000000000 -9.920000000000000 8.100000000000000
-1.110000000000000 -8.930000000000000 8.279999999999999
-0.990000000000000 -7.940000000000000 8.460000000000001
-0.620000000000000 -4.960000000000000 8.640000000000001
0.000000000000000 0.000000000000000 8.820000000000000
-0.620000000000000 -4.960000000000000 9.000000000000000
-0.740000000000000 -5.950000000000000 9.180000000000000
-0.870000000000000 -6.950000000000000 9.359999999999999
-0.740000000000000 -5.950000000000000 9.539999999999999
-0.740000000000000 -5.950000000000000 9.720000000000001
-0.740000000000000 -5.950000000000000 9.900000000000000
-0.870000000000000 -6.950000000000000 10.080000000000000
-0.490000000000000 -3.970000000000000 10.260000000000000
-0.120000000000000 -0.990000000000000 10.440000000000000
0.740000000000000 5.950000000000000 10.619999999999999
1.360000000000000 10.920000000000000 10.800000000000001
0.000000000000000 0.000000000000000 0.000000000000000
0.000000000000000 0.000000000000000 0.000000000000000
0.000000000000000 0.000000000000000 0.000000000000000
0.000000000000000 0.000000000000000 0.000000000000000
0.000000000000000 0.000000000000000 0.000000000000000
0.000000000000000 0.000000000000000 0.000000000000000
0.000000000000000 0.000000000000000 0.000000000000000
0.000000000000000 0.000000000000000 0.000000000000000
0.000000000000000 0.000000000000000 0.000000000000000
0.000000000000000 0.000000000000000 0.000000000000000
-2.200000000000000 -5.580000000000000 0.180000000000000
-1.830000000000000 -4.650000000000000 0.360000000000000
-1.100000000000000 -2.790000000000000 0.540000000000000
-1.100000000000000 -2.790000000000000 0.720000000000000
-1.100000000000000 -2.790000000000000 0.900000000000000
-1.100000000000000 -2.790000000000000 1.080000000000000
-1.100000000000000 -2.790000000000000 1.260000000000000
-1.100000000000000 -2.790000000000000 1.440000000000000
-1.100000000000000 -2.790000000000000 1.620000000000000
-1.100000000000000 -2.790000000000000 1.800000000000000
-1.830000000000000 -4.650000000000000 1.980000000000000
-1.100000000000000 -2.790000000000000 2.160000000000000
-1.100000000000000 -2.790000000000000 2.340000000000000
-1.100000000000000 -2.790000000000000 2.520000000000000
-1.100000000000000 -2.790000000000000 2.700000000000000
-1.100000000000000 -2.790000000000000 2.880000000000000
-1.100000000000000 -2.790000000000000 3.060000000000000
-1.100000000000000 -2.790000000000000 3.240000000000000
-1.100000000000000 -2.790000000000000 3.420000000000000
-1.830000000000000 -4.650000000000000 3.600000000000000
-1.100000000000000 -2.790000000000000 3.780000000000000
-1.100000000000000 -2.790000000000000 3.960000000000000
-1.100000000000000 -2.790000000000000 4.140000000000000
-1.100000000000000 -2.790000000000000 4.320000000000000
-1.830000000000000 -4.650000000000000 4.500000000000000
-1.100000000000000 -2.790000000000000 4.680000000000000
-1.100000000000000 -2.790000000000000 4.860000000000000
-1.100000000000000 -2.790000000000000 5.040000000000000
-1.830000000000000 -4.650000000000000 5.220000000000000
-1.100000000000000 -2.790000000000000 5.400000000000000
-1.100000000000000 -2.790000000000000 5.580000000000000
-1.100000000000000 -2.790000000000000 5.760000000000000
-1.830000000000000 -4.650000000000000 5.940000000000000
-2.200000000000000 -5.580000000000000 6.120000000000000
-2.200000000000000 -5.580000000000000 6.300000000000000
-1.830000000000000 -4.650000000000000 6.480000000000000
-1.470000000000000 -3.720000000000000 6.660000000000000
-0.730000000000000 -1.860000000000000 6.840000000000000
-0.370000000000000 -0.930000000000000 7.020000000000000
-0.370000000000000 -0.930000000000000 7.200000000000000
-0.730000000000000 -1.860000000000000 7.380000000000000
-1.470000000000000 -3.720000000000000 7.560000000000000
-2.200000000000000 -5.580000000000000 7.740000000000000
-2.200000000000000 -5.580000000000000 7.920000000000000
-3.300000000000000 -8.369999999999999 8.100000000000000
-2.570000000000000 -6.510000000000000 8.279999999999999
-1.100000000000000 -2.790000000000000 8.460000000000001
-1.830000000000000 -4.650000000000000 8.640000000000001
2.930000000000000 7.440000000000000 8.820000000000000
-1.470000000000000 -3.720000000000000 9.000000000000000
-2.570000000000000 -6.510000000000000 9.180000000000000
-1.830000000000000 -4.650000000000000 9.359999999999999
-1.830000000000000 -4.650000000000000 9.539999999999999
-2.200000000000000 -5.580000000000000 9.720000000000001
-2.200000000000000 -5.580000000000000 9.900000000000000
-2.570000000000000 -6.510000000000000 10.080000000000000
-2.200000000000000 -5.580000000000000 10.260000000000000
-0.370000000000000 -0.930000000000000 10.440000000000000
1.470000000000000 3.720000000000000 10.619999999999999
4.030000000000000 10.230000000000000 10.800000000000001
0.000000000000000 0.000000000000000 0.000000000000000
0.000000000000000 0.000000000000000 0.000000000000000
0.000000000000000 0.000000000000000 0.000000000000000
0.000000000000000 0.000000000000000 0.000000000000000
0.000000000000000 0.000000000000000 0.000000000000000
0.000000000000000 0.000000000000000 0.000000000000000
0.000000000000000 0.000000000000000 0.000000000000000
0.000000000000000 0.000000000000000 0.000000000000000
0.000000000000000 0.000000000000000 0.000000000000000
0.000000000000000 0.000000000000000 0.000000000000000
-1.760000000000000 -2.430000000000000 0.180000000000000
-1.760000000000000 -2.430000000000000 0.360000000000000
-1.760000000000000 -2.430000000000000 0.540000000000000
-1.760000000000000 -2.430000000000000 0.720000000000000
-1.760000000000000 -2.430000000000000 0.900000000000000
-1.760000000000000 -2.430000000000000 1.080000000000000
-1.760000000000000 -2.430000000000000 1.260000000000000
-1.760000000000000 -2.430000000000000 1.440000000000000
-1.760000000000000 -2.430000000000000 1.620000000000000
-1.760000000000000 -2.430000000000000 1.800000000000000
-1.760000000000000 -2.430000000000000 1.980000000000000
-1.760000000000000 -2.430000000000000 2.160000000000000
-1.760000000000000 -2.430000000000000 2.340000000000000
-1.760000000000000 -2.430000000000000 2.520000000000000
-1.760000000000000 -2.430000000000000 2.700000000000000
-1.760000000000000 -2.430000000000000 2.880000000000000
-1.760000000000000 -2.430000000000000 3.060000000000000
-2.930000000000000 -4.050000000000000 3.240000000000000
-1.760000000000000 -2.430000000000000 3.420000000000000
-2.930000000000000 -4.050000000000000 3.600000000000000
-1.760000000000000 -2.430000000000000 3.780000000000000
-1.760000000000000 -2.430000000000000 3.960000000000000
-1.760000000000000 -2.430000000000000 4.140000000000000
-1.760000000000000 -2.430000000000000 4.320000000000000
-1.760000000000000 -2.430000000000000 4.500000000000000
-1.760000000000000 -2.430000000000000 4.680000000000000
-1.760000000000000 -2.430000000000000 4.860000000000000
-2.340000000000000 -3.240000000000000 5.040000000000000
-1.760000000000000 -2.430000000000000 5.220000000000000
-1.760000000000000 -2.430000000000000 5.400000000000000
-1.760000000000000 -2.430000000000000 5.580000000000000
-2.340000000000000 -3.240000000000000 5.760000000000000
-3.520000000000000 -4.860000000000000 5.940000000000000
-3.520000000000000 -4.860000000000000 6.120000000000000
-2.930000000000000 -4.050000000000000 6.300000000000000
-1.760000000000000 -2.430000000000000 6.480000000000000
-1.760000000000000 -2.430000000000000 6.660000000000000
-0.590000000000000 -0.810000000000000 6.840000000000000
-0.590000000000000 -0.810000000000000 7.020000000000000
-1.170000000000000 -1.620000000000000 7.200000000000000
-2.340000000000000 -3.240000000000000 7.380000000000000
-3.520000000000000 -4.860000000000000 7.560000000000000
-4.100000000000000 -5.670000000000000 7.740000000000000
-4.100000000000000 -5.670000000000000 7.920000000000000
-4.100000000000000 -5.670000000000000 8.100000000000000
-1.170000000000000 -1.620000000000000 8.279999999999999
1.760000000000000 2.430000000000000 8.460000000000001
-2.930000000000000 -4.050000000000000 8.640000000000001
2.930000000000000 4.050000000000000 8.820000000000000
-2.930000000000000 -4.050000000000000 9.000000000000000
-4.100000000000000 -5.670000000000000 9.180000000000000
-2.930000000000000 -4.050000000000000 9.359999999999999
-3.520000000000000 -4.860000000000000 9.539999999999999
-3.520000000000000 -4.860000000000000 9.720000000000001
-3.520000000000000 -4.860000000000000 9.900000000000000
-4.100000000000000 -5.670000000000000 10.080000000000000
-3.520000000000000 -4.860000000000000 10.260000000000000
-1.760000000000000 -2.430000000000000 10.440000000000000
1.760000000000000 2.430000000000000 10.619999999999999
5.860000000000000 8.100000000000000 10.800000000000001
0.000000000000000 0.000000000000000 0.000000000000000
0.000000000000000 0.000000000000000 0.000000000000000
0.000000000000000 0.000000000000000 0.000000000000000
0.000000000000000 0.000000000000000 0.000000000000000
0.000000000000000 0.000000000000000 0.000000000000000
0.000000000000000 0.000000000000000 0.000000000000000
0.000000000000000 0.000000000000000 0.000000000000000
0.000000000000000 0.000000000000000 0.000000000000000
0.000000000000000 0.000000000000000 0.000000000000000
0.000000000000000 0.000000000000000 0.000000000000000
-2.310000000000000 -1.920000000000000 0.180000000000000
-2.310000000000000 -1.920000000000000 0.360000000000000
-2.310000000000000 -1.920000000000000 0.540000000000000
-2.310000000000000 -1.920000000000000 0.720000000000000
-2.310000000000000 -1.920000000000000 0.900000000000000
-2.310000000000000 -1.920000000000000 1.080000000000000
-2.310000000000000 -1.920000000000000 1.260000000000000
-2.310000000000000 -1.920000000000000 1.440000000000000
-2.310000000000000 -1.920000000000000 1.620000000000000
-3.850000000000000 -3.190000000000000 1.800000000000000
-2.310000000000000 -1.920000000000000 1.980000000000000
-2.310000000000000 -1.920000000000000 2.160000000000000
-2.310000000000000 -1.920000000000000 2.340000000000000
-2.310000000000000 -1.920000000000000 2.520000000000000
-2.310000000000000 -1.920000000000000 2.700000000000000
-2.310000000000000 -1.920000000000000 2.880000000000000
-2.310000000000000 -1.920000000000000 3.060000000000000
-2.310000000000000 -1.920000000000000 3.240000000000000
-2.310000000000000 -1.920000000000000 3.420000000000000
-2.310000000000000 -1.920000000000000 3.600000000000000
-2.310000000000000 -1.920000000000000 3.780000000000000
-3.850000000000000 -3.190000000000000 3.960000000000000
-2.310000000000000 -1.920000000000000 4.140000000000000
-3.080000000000000 -2.560000000000000 4.320000000000000
-2.310000000000000 -1.920000000000000 4.500000000000000
-3.080000000000000 -2.560000000000000 4.680000000000000
-3.080000000000000 -2.560000000000000 4.860000000000000
-2.310000000000000 -1.920000000000000 5.040000000000000
-2.310000000000000 -1.920000000000000 5.220000000000000
-3.080000000000000 -2.560000000000000 5.400000000000000
-3.080000000000000 -2.560000000000000 5.580000000000000
-3.080000000000000 -2.560000000000000 5.760000000000000
-4.620000000000000 -3.830000000000000 5.940000000000000
-4.620000000000000 -3.830000000000000 6.120000000000000
-2.310000000000000 -1.920000000000000 6.300000000000000
-1.540000000000000 -1.280000000000000 6.480000000000000
-1.540000000000000 -1.280000000000000 6.660000000000000
-1.540000000000000 -1.280000000000000 6.840000000000000
-2.310000000000000 -1.920000000000000 7.020000000000000
-3.850000000000000 -3.190000000000000 7.200000000000000
-4.620000000000000 -3.830000000000000 7.380000000000000
-5.380000000000000 -4.470000000000000 7.560000000000000
-6.150000000000000 -5.110000000000000 7.740000000000000
-5.380000000000000 -4.470000000000000 7.920000000000000
-2.310000000000000 -1.920000000000000 8.100000000000000
1.540000000000000 1.280000000000000 8.279999999999999
3.850000000000000 3.190000000000000 8.460000000000001
-4.620000000000000 -3.830000000000000 8.640000000000001
-3.080000000000000 -2.560000000000000 8.820000000000000
-3.850000000000000 -3.190000000000000 9.000000000000000
-4.620000000000000 -3.830000000000000 9.180000000000000
-4.620000000000000 -3.830000000000000 9.359999999999999
-4.620000000000000 -3.830000000000000 9.539999999999999
-5.380000000000000 -4.470000000000000 9.720000000000001
-5.380000000000000 -4.470000000000000 9.900000000000000
-5.380000000000000 -4.470000000000000 10.080000000000000
-6.150000000000000 -5.110000000000000 10.260000000000000
-3.850000000000000 -3.190000000000000 10.440000000000000
0.000000000000000 0.000000000000000 10.619999999999999
6.150000000000000 5.110000000000000 10.800000000000001
0.000000000000000 0.000000000000000 0.000000000000000
0.000000000000000 0.000000000000000 0.000000000000000
0.000000000000000 0.000000000000000 0.000000000000000
0.000000000000000 0.000000000000000 0.000000000000000
0.000000000000000 0.000000000000000 0.000000000000000
0.000000000000000 0.000000000000000 0.000000000000000
0.000000000000000 0.000000000000000 0.000000000000000
0.000000000000000 0.000000000000000 0.000000000000000
0.000000000000000 0.000000000000000 0.000000000000000
0.000000000000000 0.000000000000000 0.000000000000000
-3.620000000000000 -1.710000000000000 0.180000000000000
-2.710000000000000 -1.280000000000000 0.360000000000000
-2.710000000000000 -1.280000000000000 0.540000000000000
-2.710000000000000 -1.280000000000000 0.720000000000000
-2.710000000000000 -1.280000000000000 0.900000000000000
-2.710000000000000 -1.280000000000000 1.080000000000000
-2.710000000000000 -1.280000000000000 1.260000000000000
-2.710000000000000 -1.280000000000000 1.440000000000000
-2.710000000000000 -1.280000000000000 1.620000000000000
-4.520000000000000 -2.140000000000000 1.800000000000000
-2.710000000000000 -1.280000000000000 1.980000000000000
-2.710000000000000 -1.280000000000000 2.160000000000000
-2.710000000000000 -1.280000000000000 2.340000000000000
-2.710000000000000 -1.280000000000000 2.520000000000000
-2.710000000000000 -1.280000000000000 2.700000000000000
-2.710000000000000 -1.280000000000000 2.880000000000000
-2.710000000000000 -1.280000000000000 3.060000000000000
-2.710000000000000 -1.280000000000000 3.240000000000000
-2.710000000000000 -1.280000000000000 3.420000000000000
-2.710000000000000 -1.280000000000000 3.600000000000000
-2.710000000000000 -1.280000000000000 3.780000000000000
-2.710000000000000 -1.280000000000000 3.960000000000000
-2.710000000000000 -1.280000000000000 4.140000000000000
-2.710000000000000 -1.280000000000000 4.320000000000000
-2.710000000000000 -1.280000000000000 4.500000000000000
-2.710000000000000 -1.280000000000000 4.680000000000000
-3.620000000000000 -1.710000000000000 4.860000000000000
-2.710000000000000 -1.280000000000000 5.040000000000000
-2.710000000000000 -1.280000000000000 5.220000000000000
-2.710000000000000 -1.280000000000000 5.400000000000000
-3.620000000000000 -1.710000000000000 5.580000000000000
-5.420000000000000 -2.570000000000000 5.760000000000000
-4.520000000000000 -2.140000000000000 5.940000000000000
-2.710000000000000 -1.280000000000000 6.120000000000000
-0.900000000000000 -0.430000000000000 6.300000000000000
0.000000000000000 0.000000000000000 6.480000000000000
-0.900000000000000 -0.430000000000000 6.660000000000000
-2.710000000000000 -1.280000000000000 6.840000000000000
-3.620000000000000 -1.710000000000000 7.020000000000000
-5.420000000000000 -2.570000000000000 7.200000000000000
-5.420000000000000 -2.570000000000000 7.380000000000000
-6.330000000000000 -2.990000000000000 7.560000000000000
-6.330000000000000 -2.990000000000000 7.740000000000000
-4.520000000000000 -2.140000000000000 7.920000000000000
3.620000000000000 1.710000000000000 8.100000000000000
7.230000000000000 3.420000000000000 8.279999999999999
4.520000000000000 2.140000000000000 8.460000000000001
-6.330000000000000 -2.990000000000000 8.640000000000001
-6.330000000000000 -2.990000000000000 8.820000000000000
-5.420000000000000 -2.570000000000000 9.000000000000000
-4.520000000000000 -2.140000000000000 9.180000000000000
-5.420000000000000 -2.570000000000000 9.359999999999999
-5.420000000000000 -2.570000000000000 9.539999999999999
-5.420000000000000 -2.570000000000000 9.720000000000001
-5.420000000000000 -2.570000000000000 9.900000000000000
-5.420000000000000 -2.570000000000000 10.080000000000000
-4.520000000000000 -2.140000000000000 10.260000000000000
-5.420000000000000 -2.570000000000000 10.440000000000000
-0.900000000000000 -0.430000000000000 10.619999999999999
7.230000000000000 3.420000000000000 10.800000000000001
0.000000000000000 0.000000000000000 0.000000000000000
0.000000000000000 0.000000000000000 0.000000000000000
0.000000000000000 0.000000000000000 0.000000000000000
0.000000000000000 0.000000000000000 0.000000000000000
0.000000000000000 0.000000000000000 0.000000000000000
0.000000000000000 0.000000000000000 0.000000000000000
0.000000000000000 0.000000000000000 0.000000000000000
0.000000000000000 0.000000000000000 0.000000000000000
0.000000000000000 0.000000000000000 0.000000000000000
0.000000000000000 0.000000000000000 0.000000000000000
-3.930000000000000 -0.760000000000000 0.180000000000000
-3.930000000000000 -0.760000000000000 0.360000000000000
-3.930000000000000 -0.760000000000000 0.540000000000000
-3.930000000000000 -0.760000000000000 0.720000000000000
-3.930000000000000 -0.760000000000000 0.900000000000000
-3.930000000000000 -0.760000000000000 1.080000000000000
-3.930000000000000 -0.760000000000000 1.260000000000000
-3.930000000000000 -0.760000000000000 1.440000000000000
-3.930000000000000 -0.760000000000000 1.620000000000000
-2.950000000000000 -0.570000000000000 1.800000000000000
-2.950000000000000 -0.570000000000000 1.980000000000000
-2.950000000000000 -0.570000000000000 2.160000000000000
-2.950000000000000 -0.570000000000000 2.340000000000000
-2.950000000000000 -0.570000000000000 2.520000000000000
-4.910000000000000 -0.950000000000000 2.700000000000000
-2.950000000000000 -0.570000000000000 2.880000000000000
-2.950000000000000 -0.570000000000000 3.060000000000000
-2.950000000000000 -0.570000000000000 3.240000000000000
-2.950000000000000 -0.570000000000000 3.420000000000000
-2.950000000000000 -0.570000000000000 3.600000000000000
-2.950000000000000 -0.570000000000000 3.780000000000000
-2.950000000000000 -0.570000000000000 3.960000000000000
-2.950000000000000 -0.570000000000000 4.140000000000000
-5.890000000000000 -1.140000000000000 4.320000000000000
-2.950000000000000 -0.570000000000000 4.500000000000000
-2.950000000000000 -0.570000000000000 4.680000000000000
-2.950000000000000 -0.570000000000000 4.860000000000000
-2.950000000000000 -0.570000000000000 5.040000000000000
-2.950000000000000 -0.570000000000000 5.220000000000000
-2.950000000000000 -0.570000000000000 5.400000000000000
-2.950000000000000 -0.570000000000000 5.580000000000000
-2.950000000000000 -0.570000000000000 5.760000000000000
-2.950000000000000 -0.570000000000000 5.940000000000000
-0.980000000000000 -0.190000000000000 6.120000000000000
0.000000000000000 0.000000000000000 6.300000000000000
-0.980000000000000 -0.190000000000000 6.480000000000000
-2.950000000000000 -0.570000000000000 6.660000000000000
-3.930000000000000 -0.760000000000000 6.840000000000000
-4.910000000000000 -0.950000000000000 7.020000000000000
-5.890000000000000 -1.140000000000000 7.200000000000000
-5.890000000000000 -1.140000000000000 7.380000000000000
-5.890000000000000 -1.140000000000000 7.560000000000000
-3.930000000000000 -0.760000000000000 7.740000000000000
-2.950000000000000 -0.570000000000000 7.920000000000000
9.820000000000000 1.900000000000000 8.100000000000000
4.910000000000000 0.950000000000000 8.279999999999999
-1.960000000000000 -0.380000000000000 8.460000000000001
-3.930000000000000 -0.760000000000000 8.640000000000001
-8.840000000000000 -1.710000000000000 8.820000000000000
-4.910000000000000 -0.950000000000000 9.000000000000000
-4.910000000000000 -0.950000000000000 9.180000000000000
-4.910000000000000 -0.950000000000000 9.359999999999999
-4.910000000000000 -0.950000000000000 9.539999999999999
-4.910000000000000 -0.950000000000000 9.720000000000001
-5.890000000000000 -1.140000000000000 9.900000000000000
-5.890000000000000 -1.140000000000000 10.080000000000000
-4.910000000000000 -0.950000000000000 10.260000000000000
-5.890000000000000 -1.140000000000000 10.440000000000000
-1.960000000000000 -0.380000000000000 10.619999999999999
4.910000000000000 0.950000000000000 10.800000000000001
0.000000000000000 0.000000000000000 0.000000000000000
0.000000000000000 0.000000000000000 0.000000000000000
0.000000000000000 0.000000000000000 0.000000000000000
0.000000000000000 0.000000000000000 0.000000000000000
0.000000000000000 0.000000000000000 0.000000000000000
0.000000000000000 0.000000000000000 0.000000000000000
0.000000000000000 0.000000000000000 0.000000000000000
0.000000000000000 0.000000000000000 0.000000000000000
0.000000000000000 0.000000000000000 0.000000000000000
0.000000000000000 0.000000000000000 0.000000000000000
-3.990000000000000 0.240000000000000 0.180000000000000
-3.990000000000000 0.240000000000000 0.360000000000000
-3.990000000000000 0.240000000000000 0.540000000000000
-3.990000000000000 0.240000000000000 0.720000000000000
-3.990000000000000 0.240000000000000 0.900000000000000
-3.990000000000000 0.240000000000000 1.080000000000000
-3.990000000000000 0.240000000000000 1.260000000000000
-3.990000000000000 0.240000000000000 1.440000000000000
-5.990000000000000 0.360000000000000 1.620000000000000
-2.990000000000000 0.180000000000000 1.800000000000000
-3.990000000000000 0.240000000000000 1.980000000000000
-2.990000000000000 0.180000000000000 2.160000000000000
-2.990000000000000 0.180000000000000 2.340000000000000
-2.990000000000000 0.180000000000000 2.520000000000000
-2.990000000000000 0.180000000000000 2.700000000000000
